-54.0,-138.0,-216.0
-54.0,-138.0,-213.0
-54.0,-138.0,-33.0
-54.0,-138.0,-30.0
-54.0,-132.0,-225.0
-54.0,-132.0,-222.0
-54.0,-132.0,-219.0
-54.0,-132.0,-27.0
-54.0,-132.0,-24.0
-54.0,-132.0,-21.0
-54.0,-126.0,-231.0
-54.0,-126.0,-228.0
-54.0,-126.0,-18.0
-54.0,-126.0,-15.0
-54.0,-120.0,-237.0
-54.0,-120.0,-234.0
-54.0,-120.0,-12.0
-54.0,-120.0,-9.0
-54.0,-120.0,-6.0
-54.0,-120.0,-3.0
-54.0,-120.0,0.0
-54.0,-114.0,-243.0
-54.0,-114.0,-240.0
-54.0,-108.0,-249.0
-54.0,-108.0,-246.0
-54.0,-102.0,-252.0
-54.0,-102.0,-249.0
-54.0,-102.0,0.0
-54.0,-96.0,-258.0
-54.0,-96.0,-255.0
-54.0,-96.0,-6.0
-54.0,-96.0,-3.0
-54.0,-96.0,0.0
-54.0,-90.0,-261.0
-54.0,-90.0,-258.0
-54.0,-90.0,-9.0
-54.0,-90.0,-6.0
-54.0,-90.0,-3.0
-54.0,-90.0,0.0
-54.0,-84.0,-264.0
-54.0,-84.0,-261.0
-54.0,-84.0,-9.0
-54.0,-84.0,-6.0
-54.0,-84.0,-3.0
-54.0,-84.0,0.0
-54.0,-78.0,-267.0
-54.0,-78.0,-264.0
-54.0,-78.0,-12.0
-54.0,-78.0,-9.0
-54.0,-78.0,-6.0
-54.0,-78.0,-3.0
-54.0,-78.0,0.0
-54.0,-72.0,-270.0
-54.0,-72.0,-267.0
-54.0,-72.0,-12.0
-54.0,-72.0,-9.0
-54.0,-72.0,-6.0
-54.0,-72.0,-3.0
-54.0,-72.0,0.0
-54.0,-66.0,-273.0
-54.0,-66.0,-270.0
-54.0,-66.0,-12.0
-54.0,-66.0,-9.0
-54.0,-66.0,-6.0
-54.0,-66.0,-3.0
-54.0,-66.0,0.0
-54.0,-60.0,-276.0
-54.0,-60.0,-273.0
-54.0,-60.0,-12.0
-54.0,-60.0,-9.0
-54.0,-60.0,-6.0
-54.0,-60.0,-3.0
-54.0,-60.0,0.0
-54.0,-54.0,-276.0
-54.0,-54.0,-273.0
-54.0,-54.0,-12.0
-54.0,-54.0,-9.0
-54.0,-54.0,-6.0
-54.0,-54.0,-3.0
-54.0,-54.0,0.0
-54.0,-48.0,-279.0
-54.0,-48.0,-276.0
-54.0,-48.0,-21.0
-54.0,-48.0,-18.0
-54.0,-48.0,-15.0
-54.0,-48.0,-12.0
-54.0,-42.0,-282.0
-54.0,-42.0,-279.0
-54.0,-42.0,-27.0
-54.0,-42.0,-24.0
-54.0,-42.0,-21.0
-54.0,-36.0,-282.0
-54.0,-36.0,-279.0
-54.0,-36.0,-33.0
-54.0,-36.0,-30.0
-54.0,-36.0,-27.0
-54.0,-30.0,-285.0
-54.0,-30.0,-282.0
-54.0,-30.0,-36.0
-54.0,-30.0,-33.0
-54.0,-24.0,-285.0
-54.0,-24.0,-282.0
-54.0,-24.0,-39.0
-54.0,-24.0,-36.0
-54.0,-18.0,-285.0
-54.0,-18.0,-282.0
-54.0,-18.0,-42.0
-54.0,-18.0,-39.0
-54.0,-12.0,-285.0
-54.0,-12.0,-282.0
-54.0,-12.0,-45.0
-54.0,-12.0,-42.0
-54.0,-6.0,-285.0
-54.0,-6.0,-282.0
-54.0,-6.0,-45.0
-54.0,-6.0,-42.0
-54.0,0.0,-288.0
-54.0,0.0,-285.0
-54.0,0.0,-48.0
-54.0,0.0,-45.0
-54.0,6.0,-288.0
-54.0,6.0,-285.0
-54.0,6.0,-48.0
-54.0,6.0,-45.0
-54.0,12.0,-288.0
-54.0,12.0,-285.0
-54.0,12.0,-48.0
-54.0,12.0,-45.0
-54.0,18.0,-285.0
-54.0,18.0,-282.0
-54.0,18.0,-48.0
-54.0,18.0,-45.0
-54.0,24.0,-285.0
-54.0,24.0,-282.0
-54.0,24.0,-48.0
-54.0,24.0,-45.0
-54.0,30.0,-285.0
-54.0,30.0,-282.0
-54.0,30.0,-48.0
-54.0,30.0,-45.0
-54.0,36.0,-285.0
-54.0,36.0,-282.0
-54.0,36.0,-45.0
-54.0,36.0,-42.0
-54.0,42.0,-282.0
-54.0,42.0,-279.0
-54.0,42.0,-45.0
-54.0,42.0,-42.0
-54.0,48.0,-282.0
-54.0,48.0,-279.0
-54.0,48.0,-42.0
-54.0,48.0,-39.0
-54.0,54.0,-279.0
-54.0,54.0,-276.0
-54.0,54.0,-39.0
-54.0,54.0,-36.0
-54.0,60.0,-279.0
-54.0,60.0,-276.0
-54.0,60.0,-36.0
-54.0,60.0,-33.0
-54.0,66.0,-276.0
-54.0,66.0,-273.0
-54.0,66.0,-33.0
-54.0,66.0,-30.0
-54.0,72.0,-273.0
-54.0,72.0,-270.0
-54.0,72.0,-30.0
-54.0,72.0,-27.0
-54.0,78.0,-267.0
-54.0,78.0,-264.0
-54.0,78.0,-24.0
-54.0,78.0,-21.0
-54.0,84.0,-264.0
-54.0,84.0,-261.0
-54.0,84.0,-18.0
-54.0,84.0,-15.0
-54.0,90.0,-261.0
-54.0,90.0,-258.0
-54.0,90.0,-12.0
-54.0,90.0,-9.0
-54.0,90.0,-6.0
-54.0,90.0,-3.0
-54.0,90.0,0.0
-54.0,96.0,-258.0
-54.0,96.0,-255.0
-54.0,102.0,-252.0
-54.0,102.0,-249.0
-54.0,108.0,-246.0
-54.0,108.0,-243.0
-54.0,114.0,-240.0
-54.0,114.0,-237.0
-54.0,120.0,-234.0
-54.0,120.0,-231.0
-54.0,126.0,-228.0
-54.0,126.0,-225.0
-54.0,132.0,-222.0
-54.0,132.0,-219.0
-54.0,132.0,-216.0
-54.0,138.0,-213.0
-54.0,138.0,-210.0
-54.0,138.0,-207.0
-54.0,144.0,-204.0
-54.0,144.0,-201.0
-54.0,144.0,-198.0
-54.0,144.0,-195.0
-54.0,144.0,-6.0
-54.0,144.0,-3.0
-54.0,144.0,0.0
-54.0,150.0,-192.0
-54.0,150.0,-189.0
-54.0,150.0,-186.0
-54.0,150.0,-183.0
-54.0,150.0,-27.0
-54.0,150.0,-24.0
-54.0,150.0,-21.0
-54.0,150.0,-18.0
-54.0,150.0,-15.0
-54.0,150.0,-12.0
-54.0,150.0,-9.0
-54.0,150.0,-6.0
-54.0,150.0,-3.0
-54.0,150.0,0.0
-54.0,156.0,-180.0
-54.0,156.0,-177.0
-54.0,156.0,-174.0
-54.0,156.0,-171.0
-54.0,156.0,-168.0
-54.0,156.0,-45.0
-54.0,156.0,-42.0
-54.0,156.0,-39.0
-54.0,156.0,-36.0
-54.0,156.0,-33.0
-54.0,156.0,-30.0
-54.0,156.0,-27.0
-54.0,162.0,-165.0
-54.0,162.0,-162.0
-54.0,162.0,-159.0
-54.0,162.0,-156.0
-54.0,162.0,-153.0
-54.0,162.0,-150.0
-54.0,162.0,-147.0
-54.0,162.0,-144.0
-54.0,162.0,-72.0
-54.0,162.0,-69.0
-54.0,162.0,-66.0
-54.0,162.0,-63.0
-54.0,162.0,-60.0
-54.0,162.0,-57.0
-54.0,162.0,-54.0
-54.0,162.0,-51.0
-54.0,162.0,-48.0
-54.0,168.0,-141.0
-54.0,168.0,-138.0
-54.0,168.0,-135.0
-54.0,168.0,-132.0
-54.0,168.0,-129.0
-54.0,168.0,-126.0
-54.0,168.0,-123.0
-54.0,168.0,-120.0
-54.0,168.0,-117.0
-54.0,168.0,-114.0
-54.0,168.0,-111.0
-54.0,168.0,-108.0
-54.0,168.0,-105.0
-54.0,168.0,-102.0
-54.0,168.0,-99.0
-54.0,168.0,-96.0
-54.0,168.0,-93.0
-54.0,168.0,-90.0
-54.0,168.0,-87.0
-54.0,168.0,-84.0
-54.0,168.0,-81.0
-54.0,168.0,-78.0
-54.0,168.0,-75.0
-48.0,-174.0,-129.0
-48.0,-174.0,-126.0
-48.0,-174.0,-123.0
-48.0,-174.0,-120.0
-48.0,-174.0,-117.0
-48.0,-174.0,-114.0
-48.0,-174.0,-111.0
-48.0,-168.0,-165.0
-48.0,-168.0,-162.0
-48.0,-168.0,-159.0
-48.0,-168.0,-156.0
-48.0,-168.0,-153.0
-48.0,-168.0,-150.0
-48.0,-168.0,-147.0
-48.0,-168.0,-144.0
-48.0,-168.0,-141.0
-48.0,-168.0,-138.0
-48.0,-168.0,-135.0
-48.0,-168.0,-132.0
-48.0,-168.0,-108.0
-48.0,-168.0,-105.0
-48.0,-168.0,-102.0
-48.0,-168.0,-99.0
-48.0,-168.0,-96.0
-48.0,-168.0,-93.0
-48.0,-168.0,-90.0
-48.0,-168.0,-87.0
-48.0,-168.0,-84.0
-48.0,-168.0,-81.0
-48.0,-168.0,-78.0
-48.0,-162.0,-180.0
-48.0,-162.0,-177.0
-48.0,-162.0,-174.0
-48.0,-162.0,-171.0
-48.0,-162.0,-168.0
-48.0,-162.0,-75.0
-48.0,-162.0,-72.0
-48.0,-162.0,-69.0
-48.0,-162.0,-66.0
-48.0,-162.0,-63.0
-48.0,-162.0,-60.0
-48.0,-156.0,-195.0
-48.0,-156.0,-192.0
-48.0,-156.0,-189.0
-48.0,-156.0,-186.0
-48.0,-156.0,-183.0
-48.0,-156.0,-57.0
-48.0,-156.0,-54.0
-48.0,-156.0,-51.0
-48.0,-156.0,-48.0
-48.0,-150.0,-204.0
-48.0,-150.0,-201.0
-48.0,-150.0,-198.0
-48.0,-150.0,-45.0
-48.0,-150.0,-42.0
-48.0,-150.0,-39.0
-48.0,-144.0,-213.0
-48.0,-144.0,-210.0
-48.0,-144.0,-207.0
-48.0,-144.0,-36.0
-48.0,-144.0,-33.0
-48.0,-144.0,-30.0
-48.0,-138.0,-222.0
-48.0,-138.0,-219.0
-48.0,-138.0,-216.0
-48.0,-138.0,-27.0
-48.0,-138.0,-24.0
-48.0,-132.0,-228.0
-48.0,-132.0,-225.0
-48.0,-132.0,-21.0
-48.0,-132.0,-18.0
-48.0,-126.0,-234.0
-48.0,-126.0,-231.0
-48.0,-126.0,-15.0
-48.0,-126.0,-12.0
-48.0,-120.0,-240.0
-48.0,-120.0,-237.0
-48.0,-120.0,-9.0
-48.0,-120.0,-6.0
-48.0,-114.0,-246.0
-48.0,-114.0,-243.0
-48.0,-114.0,-3.0
-48.0,-114.0,0.0
-48.0,-108.0,-252.0
-48.0,-108.0,-249.0
-48.0,-108.0,-6.0
-48.0,-108.0,-3.0
-48.0,-108.0,0.0
-48.0,-102.0,-255.0
-48.0,-102.0,-252.0
-48.0,-102.0,-12.0
-48.0,-102.0,-9.0
-48.0,-102.0,-6.0
-48.0,-102.0,-3.0
-48.0,-96.0,-261.0
-48.0,-96.0,-258.0
-48.0,-96.0,-15.0
-48.0,-96.0,-12.0
-48.0,-96.0,-9.0
-48.0,-90.0,-264.0
-48.0,-90.0,-261.0
-48.0,-90.0,-15.0
-48.0,-90.0,-12.0
-48.0,-84.0,-267.0
-48.0,-84.0,-264.0
-48.0,-84.0,-18.0
-48.0,-84.0,-15.0
-48.0,-84.0,-12.0
-48.0,-78.0,-270.0
-48.0,-78.0,-267.0
-48.0,-78.0,-21.0
-48.0,-78.0,-18.0
-48.0,-78.0,-15.0
-48.0,-72.0,-273.0
-48.0,-72.0,-270.0
-48.0,-72.0,-21.0
-48.0,-72.0,-18.0
-48.0,-72.0,-15.0
-48.0,-66.0,-276.0
-48.0,-66.0,-273.0
-48.0,-66.0,-21.0
-48.0,-66.0,-18.0
-48.0,-66.0,-15.0
-48.0,-60.0,-276.0
-48.0,-60.0,-273.0
-48.0,-60.0,-24.0
-48.0,-60.0,-21.0
-48.0,-60.0,-18.0
-48.0,-60.0,-15.0
-48.0,-54.0,-279.0
-48.0,-54.0,-276.0
-48.0,-54.0,-24.0
-48.0,-54.0,-21.0
-48.0,-54.0,-18.0
-48.0,-54.0,-15.0
-48.0,-48.0,-282.0
-48.0,-48.0,-279.0
-48.0,-48.0,-30.0
-48.0,-48.0,-27.0
-48.0,-48.0,-24.0
-48.0,-42.0,-282.0
-48.0,-42.0,-279.0
-48.0,-42.0,-33.0
-48.0,-42.0,-30.0
-48.0,-36.0,-285.0
-48.0,-36.0,-282.0
-48.0,-36.0,-39.0
-48.0,-36.0,-36.0
-48.0,-30.0,-285.0
-48.0,-30.0,-282.0
-48.0,-30.0,-42.0
-48.0,-30.0,-39.0
-48.0,-24.0,-285.0
-48.0,-24.0,-282.0
-48.0,-24.0,-45.0
-48.0,-24.0,-42.0
-48.0,-18.0,-288.0
-48.0,-18.0,-285.0
-48.0,-18.0,-45.0
-48.0,-18.0,-42.0
-48.0,-12.0,-288.0
-48.0,-12.0,-285.0
-48.0,-12.0,-48.0
-48.0,-12.0,-45.0
-48.0,-6.0,-288.0
-48.0,-6.0,-285.0
-48.0,-6.0,-48.0
-48.0,-6.0,-45.0
-48.0,0.0,-288.0
-48.0,0.0,-285.0
-48.0,0.0,-51.0
-48.0,0.0,-48.0
-48.0,6.0,-288.0
-48.0,6.0,-285.0
-48.0,6.0,-51.0
-48.0,6.0,-48.0
-48.0,12.0,-288.0
-48.0,12.0,-285.0
-48.0,12.0,-51.0
-48.0,12.0,-48.0
-48.0,18.0,-288.0
-48.0,18.0,-285.0
-48.0,18.0,-51.0
-48.0,18.0,-48.0
-48.0,24.0,-288.0
-48.0,24.0,-285.0
-48.0,24.0,-51.0
-48.0,24.0,-48.0
-48.0,30.0,-285.0
-48.0,30.0,-282.0
-48.0,30.0,-48.0
-48.0,30.0,-45.0
-48.0,36.0,-285.0
-48.0,36.0,-282.0
-48.0,36.0,-48.0
-48.0,36.0,-45.0
-48.0,42.0,-285.0
-48.0,42.0,-282.0
-48.0,42.0,-45.0
-48.0,42.0,-42.0
-48.0,48.0,-282.0
-48.0,48.0,-279.0
-48.0,48.0,-45.0
-48.0,48.0,-42.0
-48.0,54.0,-282.0
-48.0,54.0,-279.0
-48.0,54.0,-42.0
-48.0,54.0,-39.0
-48.0,60.0,-279.0
-48.0,60.0,-276.0
-48.0,60.0,-39.0
-48.0,60.0,-36.0
-48.0,66.0,-276.0
-48.0,66.0,-273.0
-48.0,66.0,-33.0
-48.0,66.0,-30.0
-48.0,72.0,-273.0
-48.0,72.0,-270.0
-48.0,72.0,-30.0
-48.0,72.0,-27.0
-48.0,78.0,-270.0
-48.0,78.0,-267.0
-48.0,78.0,-24.0
-48.0,78.0,-21.0
-48.0,84.0,-267.0
-48.0,84.0,-264.0
-48.0,84.0,-18.0
-48.0,84.0,-15.0
-48.0,84.0,-12.0
-48.0,90.0,-264.0
-48.0,90.0,-261.0
-48.0,90.0,-9.0
-48.0,90.0,-6.0
-48.0,90.0,-3.0
-48.0,90.0,0.0
-48.0,96.0,-258.0
-48.0,96.0,-255.0
-48.0,102.0,-255.0
-48.0,102.0,-252.0
-48.0,108.0,-249.0
-48.0,108.0,-246.0
-48.0,114.0,-243.0
-48.0,114.0,-240.0
-48.0,120.0,-237.0
-48.0,120.0,-234.0
-48.0,126.0,-231.0
-48.0,126.0,-228.0
-48.0,132.0,-225.0
-48.0,132.0,-222.0
-48.0,132.0,-219.0
-48.0,138.0,-216.0
-48.0,138.0,-213.0
-48.0,138.0,-210.0
-48.0,144.0,-207.0
-48.0,144.0,-204.0
-48.0,144.0,-201.0
-48.0,150.0,-198.0
-48.0,150.0,-195.0
-48.0,150.0,-192.0
-48.0,150.0,-189.0
-48.0,156.0,-186.0
-48.0,156.0,-183.0
-48.0,156.0,-180.0
-48.0,156.0,-177.0
-48.0,156.0,-174.0
-48.0,156.0,-24.0
-48.0,156.0,-21.0
-48.0,156.0,-18.0
-48.0,156.0,-15.0
-48.0,156.0,-12.0
-48.0,156.0,-9.0
-48.0,156.0,-6.0
-48.0,156.0,-3.0
-48.0,156.0,0.0
-48.0,162.0,-171.0
-48.0,162.0,-168.0
-48.0,162.0,-165.0
-48.0,162.0,-162.0
-48.0,162.0,-159.0
-48.0,162.0,-156.0
-48.0,162.0,-48.0
-48.0,162.0,-45.0
-48.0,162.0,-42.0
-48.0,162.0,-39.0
-48.0,162.0,-36.0
-48.0,162.0,-33.0
-48.0,162.0,-30.0
-48.0,162.0,-27.0
-48.0,162.0,-24.0
-48.0,162.0,-21.0
-48.0,168.0,-153.0
-48.0,168.0,-150.0
-48.0,168.0,-147.0
-48.0,168.0,-144.0
-48.0,168.0,-141.0
-48.0,168.0,-138.0
-48.0,168.0,-135.0
-48.0,168.0,-132.0
-48.0,168.0,-129.0
-48.0,168.0,-126.0
-48.0,168.0,-123.0
-48.0,168.0,-120.0
-48.0,168.0,-117.0
-48.0,168.0,-90.0
-48.0,168.0,-87.0
-48.0,168.0,-84.0
-48.0,168.0,-81.0
-48.0,168.0,-78.0
-48.0,168.0,-75.0
-48.0,168.0,-72.0
-48.0,168.0,-69.0
-48.0,168.0,-66.0
-48.0,168.0,-63.0
-48.0,168.0,-60.0
-48.0,168.0,-57.0
-48.0,168.0,-54.0
-48.0,168.0,-51.0
-48.0,174.0,-114.0
-48.0,174.0,-111.0
-48.0,174.0,-108.0
-48.0,174.0,-105.0
-48.0,174.0,-102.0
-48.0,174.0,-99.0
-48.0,174.0,-96.0
-48.0,174.0,-93.0
-42.0,-174.0,-153.0
-42.0,-174.0,-150.0
-42.0,-174.0,-147.0
-42.0,-174.0,-144.0
-42.0,-174.0,-141.0
-42.0,-174.0,-138.0
-42.0,-174.0,-135.0
-42.0,-174.0,-132.0
-42.0,-174.0,-129.0
-42.0,-174.0,-126.0
-42.0,-174.0,-123.0
-42.0,-174.0,-120.0
-42.0,-174.0,-117.0
-42.0,-174.0,-114.0
-42.0,-174.0,-111.0
-42.0,-174.0,-108.0
-42.0,-174.0,-105.0
-42.0,-174.0,-102.0
-42.0,-174.0,-99.0
-42.0,-174.0,-96.0
-42.0,-174.0,-93.0
-42.0,-174.0,-90.0
-42.0,-174.0,-87.0
-42.0,-174.0,-84.0
-42.0,-168.0,-174.0
-42.0,-168.0,-171.0
-42.0,-168.0,-168.0
-42.0,-168.0,-165.0
-42.0,-168.0,-162.0
-42.0,-168.0,-159.0
-42.0,-168.0,-156.0
-42.0,-168.0,-81.0
-42.0,-168.0,-78.0
-42.0,-168.0,-75.0
-42.0,-168.0,-72.0
-42.0,-168.0,-69.0
-42.0,-168.0,-66.0
-42.0,-162.0,-189.0
-42.0,-162.0,-186.0
-42.0,-162.0,-183.0
-42.0,-162.0,-180.0
-42.0,-162.0,-177.0
-42.0,-162.0,-63.0
-42.0,-162.0,-60.0
-42.0,-162.0,-57.0
-42.0,-162.0,-54.0
-42.0,-162.0,-51.0
-42.0,-156.0,-198.0
-42.0,-156.0,-195.0
-42.0,-156.0,-192.0
-42.0,-156.0,-48.0
-42.0,-156.0,-45.0
-42.0,-156.0,-42.0
-42.0,-156.0,-39.0
-42.0,-150.0,-210.0
-42.0,-150.0,-207.0
-42.0,-150.0,-204.0
-42.0,-150.0,-201.0
-42.0,-150.0,-36.0
-42.0,-150.0,-33.0
-42.0,-150.0,-30.0
-42.0,-144.0,-219.0
-42.0,-144.0,-216.0
-42.0,-144.0,-213.0
-42.0,-144.0,-27.0
-42.0,-144.0,-24.0
-42.0,-138.0,-225.0
-42.0,-138.0,-222.0
-42.0,-138.0,-21.0
-42.0,-138.0,-18.0
-42.0,-138.0,-15.0
-42.0,-132.0,-231.0
-42.0,-132.0,-228.0
-42.0,-132.0,-15.0
-42.0,-132.0,-12.0
-42.0,-132.0,-9.0
-42.0,-126.0,-237.0
-42.0,-126.0,-234.0
-42.0,-126.0,-9.0
-42.0,-126.0,-6.0
-42.0,-126.0,-3.0
-42.0,-126.0,0.0
-42.0,-120.0,-243.0
-42.0,-120.0,-240.0
-42.0,-120.0,-3.0
-42.0,-120.0,0.0
-42.0,-114.0,-249.0
-42.0,-114.0,-246.0
-42.0,-114.0,-9.0
-42.0,-114.0,-6.0
-42.0,-108.0,-255.0
-42.0,-108.0,-252.0
-42.0,-108.0,-12.0
-42.0,-108.0,-9.0
-42.0,-102.0,-258.0
-42.0,-102.0,-255.0
-42.0,-102.0,-18.0
-42.0,-102.0,-15.0
-42.0,-96.0,-261.0
-42.0,-96.0,-258.0
-42.0,-96.0,-21.0
-42.0,-96.0,-18.0
-42.0,-90.0,-267.0
-42.0,-90.0,-264.0
-42.0,-90.0,-21.0
-42.0,-90.0,-18.0
-42.0,-84.0,-270.0
-42.0,-84.0,-267.0
-42.0,-84.0,-24.0
-42.0,-84.0,-21.0
-42.0,-78.0,-273.0
-42.0,-78.0,-270.0
-42.0,-78.0,-27.0
-42.0,-78.0,-24.0
-42.0,-72.0,-276.0
-42.0,-72.0,-273.0
-42.0,-72.0,-27.0
-42.0,-72.0,-24.0
-42.0,-66.0,-276.0
-42.0,-66.0,-273.0
-42.0,-66.0,-27.0
-42.0,-66.0,-24.0
-42.0,-60.0,-279.0
-42.0,-60.0,-276.0
-42.0,-60.0,-30.0
-42.0,-60.0,-27.0
-42.0,-54.0,-282.0
-42.0,-54.0,-279.0
-42.0,-54.0,-30.0
-42.0,-54.0,-27.0
-42.0,-48.0,-282.0
-42.0,-48.0,-279.0
-42.0,-48.0,-36.0
-42.0,-48.0,-33.0
-42.0,-42.0,-285.0
-42.0,-42.0,-282.0
-42.0,-42.0,-39.0
-42.0,-42.0,-36.0
-42.0,-36.0,-285.0
-42.0,-36.0,-282.0
-42.0,-36.0,-42.0
-42.0,-36.0,-39.0
-42.0,-30.0,-288.0
-42.0,-30.0,-285.0
-42.0,-30.0,-45.0
-42.0,-30.0,-42.0
-42.0,-24.0,-288.0
-42.0,-24.0,-285.0
-42.0,-24.0,-48.0
-42.0,-24.0,-45.0
-42.0,-18.0,-288.0
-42.0,-18.0,-285.0
-42.0,-18.0,-51.0
-42.0,-18.0,-48.0
-42.0,-12.0,-288.0
-42.0,-12.0,-285.0
-42.0,-12.0,-51.0
-42.0,-12.0,-48.0
-42.0,-6.0,-291.0
-42.0,-6.0,-288.0
-42.0,-6.0,-51.0
-42.0,-6.0,-48.0
-42.0,0.0,-291.0
-42.0,0.0,-288.0
-42.0,0.0,-54.0
-42.0,0.0,-51.0
-42.0,6.0,-291.0
-42.0,6.0,-288.0
-42.0,6.0,-54.0
-42.0,6.0,-51.0
-42.0,12.0,-291.0
-42.0,12.0,-288.0
-42.0,12.0,-54.0
-42.0,12.0,-51.0
-42.0,18.0,-288.0
-42.0,18.0,-285.0
-42.0,18.0,-51.0
-42.0,18.0,-48.0
-42.0,24.0,-288.0
-42.0,24.0,-285.0
-42.0,24.0,-51.0
-42.0,24.0,-48.0
-42.0,30.0,-288.0
-42.0,30.0,-285.0
-42.0,30.0,-51.0
-42.0,30.0,-48.0
-42.0,36.0,-288.0
-42.0,36.0,-285.0
-42.0,36.0,-48.0
-42.0,36.0,-45.0
-42.0,42.0,-285.0
-42.0,42.0,-282.0
-42.0,42.0,-48.0
-42.0,42.0,-45.0
-42.0,48.0,-285.0
-42.0,48.0,-282.0
-42.0,48.0,-45.0
-42.0,48.0,-42.0
-42.0,54.0,-282.0
-42.0,54.0,-279.0
-42.0,54.0,-42.0
-42.0,54.0,-39.0
-42.0,60.0,-279.0
-42.0,60.0,-276.0
-42.0,60.0,-39.0
-42.0,60.0,-36.0
-42.0,66.0,-279.0
-42.0,66.0,-276.0
-42.0,66.0,-33.0
-42.0,66.0,-30.0
-42.0,72.0,-276.0
-42.0,72.0,-273.0
-42.0,72.0,-27.0
-42.0,72.0,-24.0
-42.0,78.0,-270.0
-42.0,78.0,-267.0
-42.0,78.0,-21.0
-42.0,78.0,-18.0
-42.0,84.0,-267.0
-42.0,84.0,-264.0
-42.0,84.0,-15.0
-42.0,84.0,-12.0
-42.0,84.0,-9.0
-42.0,84.0,-6.0
-42.0,84.0,-3.0
-42.0,84.0,0.0
-42.0,90.0,-264.0
-42.0,90.0,-261.0
-42.0,96.0,-261.0
-42.0,96.0,-258.0
-42.0,102.0,-255.0
-42.0,102.0,-252.0
-42.0,108.0,-252.0
-42.0,108.0,-249.0
-42.0,114.0,-246.0
-42.0,114.0,-243.0
-42.0,120.0,-240.0
-42.0,120.0,-237.0
-42.0,126.0,-234.0
-42.0,126.0,-231.0
-42.0,132.0,-228.0
-42.0,132.0,-225.0
-42.0,132.0,-222.0
-42.0,138.0,-219.0
-42.0,138.0,-216.0
-42.0,138.0,-213.0
-42.0,144.0,-210.0
-42.0,144.0,-207.0
-42.0,144.0,-204.0
-42.0,150.0,-201.0
-42.0,150.0,-198.0
-42.0,150.0,-195.0
-42.0,156.0,-192.0
-42.0,156.0,-189.0
-42.0,156.0,-186.0
-42.0,156.0,-183.0
-42.0,156.0,-180.0
-42.0,162.0,-177.0
-42.0,162.0,-174.0
-42.0,162.0,-171.0
-42.0,162.0,-168.0
-42.0,162.0,-165.0
-42.0,162.0,-18.0
-42.0,162.0,-15.0
-42.0,162.0,-12.0
-42.0,162.0,-9.0
-42.0,162.0,-6.0
-42.0,162.0,-3.0
-42.0,162.0,0.0
-42.0,168.0,-162.0
-42.0,168.0,-159.0
-42.0,168.0,-156.0
-42.0,168.0,-153.0
-42.0,168.0,-150.0
-42.0,168.0,-147.0
-42.0,168.0,-144.0
-42.0,168.0,-141.0
-42.0,168.0,-54.0
-42.0,168.0,-51.0
-42.0,168.0,-48.0
-42.0,168.0,-45.0
-42.0,168.0,-42.0
-42.0,168.0,-39.0
-42.0,168.0,-36.0
-42.0,168.0,-33.0
-42.0,168.0,-30.0
-42.0,168.0,-27.0
-42.0,168.0,-24.0
-42.0,168.0,-21.0
-42.0,168.0,-18.0
-42.0,168.0,-15.0
-42.0,174.0,-138.0
-42.0,174.0,-135.0
-42.0,174.0,-132.0
-42.0,174.0,-129.0
-42.0,174.0,-126.0
-42.0,174.0,-123.0
-42.0,174.0,-120.0
-42.0,174.0,-117.0
-42.0,174.0,-114.0
-42.0,174.0,-111.0
-42.0,174.0,-108.0
-42.0,174.0,-105.0
-42.0,174.0,-102.0
-42.0,174.0,-99.0
-42.0,174.0,-96.0
-42.0,174.0,-93.0
-42.0,174.0,-90.0
-42.0,174.0,-87.0
-42.0,174.0,-84.0
-42.0,174.0,-81.0
-42.0,174.0,-78.0
-42.0,174.0,-75.0
-42.0,174.0,-72.0
-42.0,174.0,-69.0
-42.0,174.0,-66.0
-42.0,174.0,-63.0
-42.0,174.0,-60.0
-42.0,174.0,-57.0
-36.0,-180.0,-135.0
-36.0,-180.0,-132.0
-36.0,-180.0,-129.0
-36.0,-180.0,-126.0
-36.0,-180.0,-123.0
-36.0,-180.0,-120.0
-36.0,-180.0,-117.0
-36.0,-180.0,-114.0
-36.0,-180.0,-111.0
-36.0,-180.0,-108.0
-36.0,-180.0,-105.0
-36.0,-180.0,-102.0
-36.0,-180.0,-99.0
-36.0,-180.0,-96.0
-36.0,-174.0,-165.0
-36.0,-174.0,-162.0
-36.0,-174.0,-159.0
-36.0,-174.0,-156.0
-36.0,-174.0,-153.0
-36.0,-174.0,-150.0
-36.0,-174.0,-147.0
-36.0,-174.0,-144.0
-36.0,-174.0,-141.0
-36.0,-174.0,-138.0
-36.0,-174.0,-93.0
-36.0,-174.0,-90.0
-36.0,-174.0,-87.0
-36.0,-174.0,-84.0
-36.0,-174.0,-81.0
-36.0,-174.0,-78.0
-36.0,-174.0,-75.0
-36.0,-174.0,-72.0
-36.0,-174.0,-69.0
-36.0,-168.0,-180.0
-36.0,-168.0,-177.0
-36.0,-168.0,-174.0
-36.0,-168.0,-171.0
-36.0,-168.0,-168.0
-36.0,-168.0,-66.0
-36.0,-168.0,-63.0
-36.0,-168.0,-60.0
-36.0,-168.0,-57.0
-36.0,-168.0,-54.0
-36.0,-162.0,-195.0
-36.0,-162.0,-192.0
-36.0,-162.0,-189.0
-36.0,-162.0,-186.0
-36.0,-162.0,-183.0
-36.0,-162.0,-51.0
-36.0,-162.0,-48.0
-36.0,-162.0,-45.0
-36.0,-162.0,-42.0
-36.0,-162.0,-39.0
-36.0,-156.0,-204.0
-36.0,-156.0,-201.0
-36.0,-156.0,-198.0
-36.0,-156.0,-36.0
-36.0,-156.0,-33.0
-36.0,-156.0,-30.0
-36.0,-150.0,-213.0
-36.0,-150.0,-210.0
-36.0,-150.0,-207.0
-36.0,-150.0,-27.0
-36.0,-150.0,-24.0
-36.0,-150.0,-21.0
-36.0,-150.0,-18.0
-36.0,-144.0,-222.0
-36.0,-144.0,-219.0
-36.0,-144.0,-216.0
-36.0,-144.0,-21.0
-36.0,-144.0,-18.0
-36.0,-144.0,-15.0
-36.0,-144.0,-12.0
-36.0,-144.0,-9.0
-36.0,-138.0,-228.0
-36.0,-138.0,-225.0
-36.0,-138.0,-12.0
-36.0,-138.0,-9.0
-36.0,-138.0,-6.0
-36.0,-138.0,-3.0
-36.0,-138.0,0.0
-36.0,-132.0,-237.0
-36.0,-132.0,-234.0
-36.0,-132.0,-231.0
-36.0,-132.0,-6.0
-36.0,-132.0,-3.0
-36.0,-132.0,0.0
-36.0,-126.0,-240.0
-36.0,-126.0,-237.0
-36.0,-120.0,-246.0
-36.0,-120.0,-243.0
-36.0,-120.0,-3.0
-36.0,-120.0,0.0
-36.0,-114.0,-252.0
-36.0,-114.0,-249.0
-36.0,-114.0,-9.0
-36.0,-114.0,-6.0
-36.0,-108.0,-255.0
-36.0,-108.0,-252.0
-36.0,-108.0,-15.0
-36.0,-108.0,-12.0
-36.0,-102.0,-261.0
-36.0,-102.0,-258.0
-36.0,-102.0,-21.0
-36.0,-102.0,-18.0
-36.0,-96.0,-264.0
-36.0,-96.0,-261.0
-36.0,-96.0,-24.0
-36.0,-96.0,-21.0
-36.0,-90.0,-267.0
-36.0,-90.0,-264.0
-36.0,-90.0,-27.0
-36.0,-90.0,-24.0
-36.0,-84.0,-270.0
-36.0,-84.0,-267.0
-36.0,-84.0,-30.0
-36.0,-84.0,-27.0
-36.0,-78.0,-273.0
-36.0,-78.0,-270.0
-36.0,-78.0,-30.0
-36.0,-78.0,-27.0
-36.0,-72.0,-276.0
-36.0,-72.0,-273.0
-36.0,-72.0,-33.0
-36.0,-72.0,-30.0
-36.0,-66.0,-279.0
-36.0,-66.0,-276.0
-36.0,-66.0,-33.0
-36.0,-66.0,-30.0
-36.0,-60.0,-282.0
-36.0,-60.0,-279.0
-36.0,-60.0,-36.0
-36.0,-60.0,-33.0
-36.0,-54.0,-282.0
-36.0,-54.0,-279.0
-36.0,-54.0,-36.0
-36.0,-54.0,-33.0
-36.0,-48.0,-285.0
-36.0,-48.0,-282.0
-36.0,-48.0,-42.0
-36.0,-48.0,-39.0
-36.0,-42.0,-285.0
-36.0,-42.0,-282.0
-36.0,-42.0,-45.0
-36.0,-42.0,-42.0
-36.0,-36.0,-288.0
-36.0,-36.0,-285.0
-36.0,-36.0,-48.0
-36.0,-36.0,-45.0
-36.0,-30.0,-288.0
-36.0,-30.0,-285.0
-36.0,-30.0,-48.0
-36.0,-30.0,-45.0
-36.0,-24.0,-288.0
-36.0,-24.0,-285.0
-36.0,-24.0,-51.0
-36.0,-24.0,-48.0
-36.0,-18.0,-291.0
-36.0,-18.0,-288.0
-36.0,-18.0,-51.0
-36.0,-18.0,-48.0
-36.0,-12.0,-291.0
-36.0,-12.0,-288.0
-36.0,-12.0,-54.0
-36.0,-12.0,-51.0
-36.0,-6.0,-291.0
-36.0,-6.0,-288.0
-36.0,-6.0,-54.0
-36.0,-6.0,-51.0
-36.0,0.0,-291.0
-36.0,0.0,-288.0
-36.0,0.0,-54.0
-36.0,0.0,-51.0
-36.0,6.0,-291.0
-36.0,6.0,-288.0
-36.0,6.0,-54.0
-36.0,6.0,-51.0
-36.0,12.0,-291.0
-36.0,12.0,-288.0
-36.0,12.0,-54.0
-36.0,12.0,-51.0
-36.0,18.0,-291.0
-36.0,18.0,-288.0
-36.0,18.0,-54.0
-36.0,18.0,-51.0
-36.0,24.0,-291.0
-36.0,24.0,-288.0
-36.0,24.0,-54.0
-36.0,24.0,-51.0
-36.0,30.0,-288.0
-36.0,30.0,-285.0
-36.0,30.0,-51.0
-36.0,30.0,-48.0
-36.0,36.0,-288.0
-36.0,36.0,-285.0
-36.0,36.0,-51.0
-36.0,36.0,-48.0
-36.0,42.0,-288.0
-36.0,42.0,-285.0
-36.0,42.0,-48.0
-36.0,42.0,-45.0
-36.0,48.0,-285.0
-36.0,48.0,-282.0
-36.0,48.0,-45.0
-36.0,48.0,-42.0
-36.0,54.0,-285.0
-36.0,54.0,-282.0
-36.0,54.0,-42.0
-36.0,54.0,-39.0
-36.0,60.0,-282.0
-36.0,60.0,-279.0
-36.0,60.0,-36.0
-36.0,60.0,-33.0
-36.0,66.0,-279.0
-36.0,66.0,-276.0
-36.0,66.0,-33.0
-36.0,66.0,-30.0
-36.0,72.0,-276.0
-36.0,72.0,-273.0
-36.0,72.0,-27.0
-36.0,72.0,-24.0
-36.0,72.0,-21.0
-36.0,78.0,-273.0
-36.0,78.0,-270.0
-36.0,78.0,-18.0
-36.0,78.0,-15.0
-36.0,78.0,-12.0
-36.0,84.0,-270.0
-36.0,84.0,-267.0
-36.0,84.0,-9.0
-36.0,84.0,-6.0
-36.0,84.0,-3.0
-36.0,84.0,0.0
-36.0,90.0,-267.0
-36.0,90.0,-264.0
-36.0,96.0,-261.0
-36.0,96.0,-258.0
-36.0,102.0,-258.0
-36.0,102.0,-255.0
-36.0,108.0,-252.0
-36.0,108.0,-249.0
-36.0,114.0,-249.0
-36.0,114.0,-246.0
-36.0,120.0,-243.0
-36.0,120.0,-240.0
-36.0,126.0,-237.0
-36.0,126.0,-234.0
-36.0,132.0,-231.0
-36.0,132.0,-228.0
-36.0,132.0,-225.0
-36.0,138.0,-222.0
-36.0,138.0,-219.0
-36.0,138.0,-216.0
-36.0,144.0,-213.0
-36.0,144.0,-210.0
-36.0,144.0,-207.0
-36.0,150.0,-204.0
-36.0,150.0,-201.0
-36.0,150.0,-198.0
-36.0,156.0,-195.0
-36.0,156.0,-192.0
-36.0,156.0,-189.0
-36.0,156.0,-186.0
-36.0,162.0,-183.0
-36.0,162.0,-180.0
-36.0,162.0,-177.0
-36.0,162.0,-174.0
-36.0,162.0,-171.0
-36.0,168.0,-168.0
-36.0,168.0,-165.0
-36.0,168.0,-162.0
-36.0,168.0,-159.0
-36.0,168.0,-156.0
-36.0,168.0,-153.0
-36.0,168.0,-12.0
-36.0,168.0,-9.0
-36.0,168.0,-6.0
-36.0,168.0,-3.0
-36.0,168.0,0.0
-36.0,174.0,-150.0
-36.0,174.0,-147.0
-36.0,174.0,-144.0
-36.0,174.0,-141.0
-36.0,174.0,-138.0
-36.0,174.0,-135.0
-36.0,174.0,-132.0
-36.0,174.0,-129.0
-36.0,174.0,-126.0
-36.0,174.0,-123.0
-36.0,174.0,-120.0
-36.0,174.0,-66.0
-36.0,174.0,-63.0
-36.0,174.0,-60.0
-36.0,174.0,-57.0
-36.0,174.0,-54.0
-36.0,174.0,-51.0
-36.0,174.0,-48.0
-36.0,174.0,-45.0
-36.0,174.0,-42.0
-36.0,174.0,-39.0
-36.0,174.0,-36.0
-36.0,174.0,-33.0
-36.0,174.0,-30.0
-36.0,174.0,-27.0
-36.0,174.0,-24.0
-36.0,174.0,-21.0
-36.0,174.0,-18.0
-36.0,174.0,-15.0
-36.0,174.0,-12.0
-36.0,174.0,-9.0
-36.0,180.0,-117.0
-36.0,180.0,-114.0
-36.0,180.0,-111.0
-36.0,180.0,-108.0
-36.0,180.0,-105.0
-36.0,180.0,-102.0
-36.0,180.0,-99.0
-36.0,180.0,-96.0
-36.0,180.0,-93.0
-36.0,180.0,-90.0
-36.0,180.0,-87.0
-36.0,180.0,-84.0
-36.0,180.0,-81.0
-36.0,180.0,-78.0
-36.0,180.0,-75.0
-36.0,180.0,-72.0
-36.0,180.0,-69.0
-30.0,-180.0,-153.0
-30.0,-180.0,-150.0
-30.0,-180.0,-147.0
-30.0,-180.0,-144.0
-30.0,-180.0,-141.0
-30.0,-180.0,-138.0
-30.0,-180.0,-135.0
-30.0,-180.0,-132.0
-30.0,-180.0,-129.0
-30.0,-180.0,-126.0
-30.0,-180.0,-123.0
-30.0,-180.0,-120.0
-30.0,-180.0,-117.0
-30.0,-180.0,-114.0
-30.0,-180.0,-111.0
-30.0,-180.0,-108.0
-30.0,-180.0,-105.0
-30.0,-180.0,-102.0
-30.0,-180.0,-99.0
-30.0,-180.0,-96.0
-30.0,-180.0,-93.0
-30.0,-180.0,-90.0
-30.0,-180.0,-87.0
-30.0,-180.0,-84.0
-30.0,-180.0,-81.0
-30.0,-180.0,-78.0
-30.0,-180.0,-75.0
-30.0,-174.0,-174.0
-30.0,-174.0,-171.0
-30.0,-174.0,-168.0
-30.0,-174.0,-165.0
-30.0,-174.0,-162.0
-30.0,-174.0,-159.0
-30.0,-174.0,-156.0
-30.0,-174.0,-72.0
-30.0,-174.0,-69.0
-30.0,-174.0,-66.0
-30.0,-174.0,-63.0
-30.0,-174.0,-60.0
-30.0,-174.0,-57.0
-30.0,-174.0,-54.0
-30.0,-168.0,-189.0
-30.0,-168.0,-186.0
-30.0,-168.0,-183.0
-30.0,-168.0,-180.0
-30.0,-168.0,-177.0
-30.0,-168.0,-51.0
-30.0,-168.0,-48.0
-30.0,-168.0,-45.0
-30.0,-168.0,-42.0
-30.0,-168.0,-39.0
-30.0,-162.0,-198.0
-30.0,-162.0,-195.0
-30.0,-162.0,-192.0
-30.0,-162.0,-36.0
-30.0,-162.0,-33.0
-30.0,-162.0,-30.0
-30.0,-162.0,-27.0
-30.0,-156.0,-210.0
-30.0,-156.0,-207.0
-30.0,-156.0,-204.0
-30.0,-156.0,-201.0
-30.0,-156.0,-27.0
-30.0,-156.0,-24.0
-30.0,-156.0,-21.0
-30.0,-156.0,-18.0
-30.0,-156.0,-15.0
-30.0,-156.0,-12.0
-30.0,-156.0,-9.0
-30.0,-150.0,-219.0
-30.0,-150.0,-216.0
-30.0,-150.0,-213.0
-30.0,-150.0,-15.0
-30.0,-150.0,-12.0
-30.0,-150.0,-9.0
-30.0,-150.0,-6.0
-30.0,-150.0,-3.0
-30.0,-150.0,0.0
-30.0,-144.0,-225.0
-30.0,-144.0,-222.0
-30.0,-144.0,-6.0
-30.0,-144.0,-3.0
-30.0,-144.0,0.0
-30.0,-138.0,-231.0
-30.0,-138.0,-228.0
-30.0,-132.0,-240.0
-30.0,-132.0,-237.0
-30.0,-132.0,-234.0
-30.0,-126.0,-243.0
-30.0,-126.0,-240.0
-30.0,-120.0,-249.0
-30.0,-120.0,-246.0
-30.0,-114.0,-255.0
-30.0,-114.0,-252.0
-30.0,-114.0,-9.0
-30.0,-114.0,-6.0
-30.0,-114.0,-3.0
-30.0,-114.0,0.0
-30.0,-108.0,-258.0
-30.0,-108.0,-255.0
-30.0,-108.0,-15.0
-30.0,-108.0,-12.0
-30.0,-102.0,-264.0
-30.0,-102.0,-261.0
-30.0,-102.0,-21.0
-30.0,-102.0,-18.0
-30.0,-96.0,-267.0
-30.0,-96.0,-264.0
-30.0,-96.0,-27.0
-30.0,-96.0,-24.0
-30.0,-90.0,-270.0
-30.0,-90.0,-267.0
-30.0,-90.0,-30.0
-30.0,-90.0,-27.0
-30.0,-84.0,-273.0
-30.0,-84.0,-270.0
-30.0,-84.0,-33.0
-30.0,-84.0,-30.0
-30.0,-78.0,-276.0
-30.0,-78.0,-273.0
-30.0,-78.0,-36.0
-30.0,-78.0,-33.0
-30.0,-72.0,-279.0
-30.0,-72.0,-276.0
-30.0,-72.0,-36.0
-30.0,-72.0,-33.0
-30.0,-66.0,-282.0
-30.0,-66.0,-279.0
-30.0,-66.0,-39.0
-30.0,-66.0,-36.0
-30.0,-60.0,-282.0
-30.0,-60.0,-279.0
-30.0,-60.0,-39.0
-30.0,-60.0,-36.0
-30.0,-54.0,-285.0
-30.0,-54.0,-282.0
-30.0,-54.0,-42.0
-30.0,-54.0,-39.0
-30.0,-48.0,-285.0
-30.0,-48.0,-282.0
-30.0,-48.0,-45.0
-30.0,-48.0,-42.0
-30.0,-42.0,-288.0
-30.0,-42.0,-285.0
-30.0,-42.0,-48.0
-30.0,-42.0,-45.0
-30.0,-36.0,-288.0
-30.0,-36.0,-285.0
-30.0,-36.0,-51.0
-30.0,-36.0,-48.0
-30.0,-30.0,-291.0
-30.0,-30.0,-288.0
-30.0,-30.0,-51.0
-30.0,-30.0,-48.0
-30.0,-24.0,-291.0
-30.0,-24.0,-288.0
-30.0,-24.0,-54.0
-30.0,-24.0,-51.0
-30.0,-18.0,-291.0
-30.0,-18.0,-288.0
-30.0,-18.0,-54.0
-30.0,-18.0,-51.0
-30.0,-12.0,-291.0
-30.0,-12.0,-288.0
-30.0,-12.0,-54.0
-30.0,-12.0,-51.0
-30.0,-6.0,-291.0
-30.0,-6.0,-288.0
-30.0,-6.0,-54.0
-30.0,-6.0,-51.0
-30.0,0.0,-291.0
-30.0,0.0,-288.0
-30.0,0.0,-57.0
-30.0,0.0,-54.0
-30.0,6.0,-291.0
-30.0,6.0,-288.0
-30.0,6.0,-54.0
-30.0,6.0,-51.0
-30.0,12.0,-291.0
-30.0,12.0,-288.0
-30.0,12.0,-54.0
-30.0,12.0,-51.0
-30.0,18.0,-291.0
-30.0,18.0,-288.0
-30.0,18.0,-54.0
-30.0,18.0,-51.0
-30.0,24.0,-291.0
-30.0,24.0,-288.0
-30.0,24.0,-54.0
-30.0,24.0,-51.0
-30.0,30.0,-291.0
-30.0,30.0,-288.0
-30.0,30.0,-54.0
-30.0,30.0,-51.0
-30.0,36.0,-288.0
-30.0,36.0,-285.0
-30.0,36.0,-51.0
-30.0,36.0,-48.0
-30.0,42.0,-288.0
-30.0,42.0,-285.0
-30.0,42.0,-48.0
-30.0,42.0,-45.0
-30.0,48.0,-285.0
-30.0,48.0,-282.0
-30.0,48.0,-45.0
-30.0,48.0,-42.0
-30.0,54.0,-285.0
-30.0,54.0,-282.0
-30.0,54.0,-42.0
-30.0,54.0,-39.0
-30.0,60.0,-282.0
-30.0,60.0,-279.0
-30.0,60.0,-36.0
-30.0,60.0,-33.0
-30.0,66.0,-279.0
-30.0,66.0,-276.0
-30.0,66.0,-30.0
-30.0,66.0,-27.0
-30.0,72.0,-276.0
-30.0,72.0,-273.0
-30.0,72.0,-24.0
-30.0,72.0,-21.0
-30.0,72.0,-18.0
-30.0,78.0,-273.0
-30.0,78.0,-270.0
-30.0,78.0,-15.0
-30.0,78.0,-12.0
-30.0,78.0,-9.0
-30.0,78.0,-6.0
-30.0,78.0,-3.0
-30.0,78.0,0.0
-30.0,84.0,-270.0
-30.0,84.0,-267.0
-30.0,90.0,-267.0
-30.0,90.0,-264.0
-30.0,96.0,-264.0
-30.0,96.0,-261.0
-30.0,102.0,-258.0
-30.0,102.0,-255.0
-30.0,108.0,-255.0
-30.0,108.0,-252.0
-30.0,114.0,-249.0
-30.0,114.0,-246.0
-30.0,120.0,-243.0
-30.0,120.0,-240.0
-30.0,126.0,-237.0
-30.0,126.0,-234.0
-30.0,132.0,-231.0
-30.0,132.0,-228.0
-30.0,138.0,-225.0
-30.0,138.0,-222.0
-30.0,138.0,-219.0
-30.0,144.0,-216.0
-30.0,144.0,-213.0
-30.0,150.0,-210.0
-30.0,150.0,-207.0
-30.0,150.0,-204.0
-30.0,150.0,-201.0
-30.0,156.0,-198.0
-30.0,156.0,-195.0
-30.0,156.0,-192.0
-30.0,162.0,-189.0
-30.0,162.0,-186.0
-30.0,162.0,-183.0
-30.0,162.0,-180.0
-30.0,162.0,-177.0
-30.0,168.0,-174.0
-30.0,168.0,-171.0
-30.0,168.0,-168.0
-30.0,168.0,-165.0
-30.0,168.0,-162.0
-30.0,174.0,-159.0
-30.0,174.0,-156.0
-30.0,174.0,-153.0
-30.0,174.0,-150.0
-30.0,174.0,-147.0
-30.0,174.0,-144.0
-30.0,174.0,-141.0
-30.0,174.0,-138.0
-30.0,174.0,-12.0
-30.0,174.0,-9.0
-30.0,174.0,-6.0
-30.0,174.0,-3.0
-30.0,174.0,0.0
-30.0,180.0,-135.0
-30.0,180.0,-132.0
-30.0,180.0,-129.0
-30.0,180.0,-126.0
-30.0,180.0,-123.0
-30.0,180.0,-120.0
-30.0,180.0,-117.0
-30.0,180.0,-114.0
-30.0,180.0,-111.0
-30.0,180.0,-108.0
-30.0,180.0,-105.0
-30.0,180.0,-102.0
-30.0,180.0,-99.0
-30.0,180.0,-96.0
-30.0,180.0,-93.0
-30.0,180.0,-90.0
-30.0,180.0,-87.0
-30.0,180.0,-84.0
-30.0,180.0,-81.0
-30.0,180.0,-78.0
-30.0,180.0,-75.0
-30.0,180.0,-72.0
-30.0,180.0,-69.0
-30.0,180.0,-66.0
-30.0,180.0,-63.0
-30.0,180.0,-60.0
-30.0,180.0,-57.0
-30.0,180.0,-54.0
-30.0,180.0,-51.0
-30.0,180.0,-48.0
-30.0,180.0,-45.0
-30.0,180.0,-42.0
-30.0,180.0,-39.0
-30.0,180.0,-36.0
-30.0,180.0,-33.0
-30.0,180.0,-30.0
-30.0,180.0,-27.0
-30.0,180.0,-24.0
-30.0,180.0,-21.0
-30.0,180.0,-18.0
-30.0,180.0,-15.0
-24.0,-186.0,-138.0
-24.0,-186.0,-135.0
-24.0,-186.0,-132.0
-24.0,-186.0,-129.0
-24.0,-186.0,-126.0
-24.0,-186.0,-123.0
-24.0,-186.0,-120.0
-24.0,-186.0,-117.0
-24.0,-186.0,-114.0
-24.0,-186.0,-111.0
-24.0,-186.0,-108.0
-24.0,-186.0,-105.0
-24.0,-186.0,-102.0
-24.0,-186.0,-99.0
-24.0,-186.0,-96.0
-24.0,-186.0,-93.0
-24.0,-186.0,-90.0
-24.0,-186.0,-87.0
-24.0,-186.0,-84.0
-24.0,-180.0,-165.0
-24.0,-180.0,-162.0
-24.0,-180.0,-159.0
-24.0,-180.0,-156.0
-24.0,-180.0,-153.0
-24.0,-180.0,-150.0
-24.0,-180.0,-147.0
-24.0,-180.0,-144.0
-24.0,-180.0,-141.0
-24.0,-180.0,-81.0
-24.0,-180.0,-78.0
-24.0,-180.0,-75.0
-24.0,-180.0,-72.0
-24.0,-180.0,-69.0
-24.0,-180.0,-66.0
-24.0,-180.0,-63.0
-24.0,-180.0,-60.0
-24.0,-180.0,-57.0
-24.0,-174.0,-180.0
-24.0,-174.0,-177.0
-24.0,-174.0,-174.0
-24.0,-174.0,-171.0
-24.0,-174.0,-168.0
-24.0,-174.0,-54.0
-24.0,-174.0,-51.0
-24.0,-174.0,-48.0
-24.0,-174.0,-45.0
-24.0,-174.0,-42.0
-24.0,-174.0,-39.0
-24.0,-168.0,-192.0
-24.0,-168.0,-189.0
-24.0,-168.0,-186.0
-24.0,-168.0,-183.0
-24.0,-168.0,-36.0
-24.0,-168.0,-33.0
-24.0,-168.0,-30.0
-24.0,-168.0,-27.0
-24.0,-168.0,-24.0
-24.0,-168.0,-21.0
-24.0,-162.0,-204.0
-24.0,-162.0,-201.0
-24.0,-162.0,-198.0
-24.0,-162.0,-195.0
-24.0,-162.0,-24.0
-24.0,-162.0,-21.0
-24.0,-162.0,-18.0
-24.0,-162.0,-15.0
-24.0,-162.0,-12.0
-24.0,-162.0,-9.0
-24.0,-162.0,-6.0
-24.0,-162.0,-3.0
-24.0,-162.0,0.0
-24.0,-156.0,-213.0
-24.0,-156.0,-210.0
-24.0,-156.0,-207.0
-24.0,-156.0,-6.0
-24.0,-156.0,-3.0
-24.0,-156.0,0.0
-24.0,-150.0,-222.0
-24.0,-150.0,-219.0
-24.0,-150.0,-216.0
-24.0,-144.0,-228.0
-24.0,-144.0,-225.0
-24.0,-138.0,-234.0
-24.0,-138.0,-231.0
-24.0,-132.0,-240.0
-24.0,-132.0,-237.0
-24.0,-126.0,-246.0
-24.0,-126.0,-243.0
-24.0,-120.0,-252.0
-24.0,-120.0,-249.0
-24.0,-114.0,-258.0
-24.0,-114.0,-255.0
-24.0,-114.0,-9.0
-24.0,-114.0,-6.0
-24.0,-114.0,-3.0
-24.0,-114.0,0.0
-24.0,-108.0,-261.0
-24.0,-108.0,-258.0
-24.0,-108.0,-15.0
-24.0,-108.0,-12.0
-24.0,-102.0,-264.0
-24.0,-102.0,-261.0
-24.0,-102.0,-21.0
-24.0,-102.0,-18.0
-24.0,-96.0,-267.0
-24.0,-96.0,-264.0
-24.0,-96.0,-27.0
-24.0,-96.0,-24.0
-24.0,-90.0,-273.0
-24.0,-90.0,-270.0
-24.0,-90.0,-30.0
-24.0,-90.0,-27.0
-24.0,-84.0,-276.0
-24.0,-84.0,-273.0
-24.0,-84.0,-36.0
-24.0,-84.0,-33.0
-24.0,-78.0,-276.0
-24.0,-78.0,-273.0
-24.0,-78.0,-36.0
-24.0,-78.0,-33.0
-24.0,-72.0,-279.0
-24.0,-72.0,-276.0
-24.0,-72.0,-39.0
-24.0,-72.0,-36.0
-24.0,-66.0,-282.0
-24.0,-66.0,-279.0
-24.0,-66.0,-42.0
-24.0,-66.0,-39.0
-24.0,-60.0,-285.0
-24.0,-60.0,-282.0
-24.0,-60.0,-42.0
-24.0,-60.0,-39.0
-24.0,-54.0,-285.0
-24.0,-54.0,-282.0
-24.0,-54.0,-45.0
-24.0,-54.0,-42.0
-24.0,-48.0,-288.0
-24.0,-48.0,-285.0
-24.0,-48.0,-48.0
-24.0,-48.0,-45.0
-24.0,-42.0,-288.0
-24.0,-42.0,-285.0
-24.0,-42.0,-51.0
-24.0,-42.0,-48.0
-24.0,-36.0,-288.0
-24.0,-36.0,-285.0
-24.0,-36.0,-51.0
-24.0,-36.0,-48.0
-24.0,-30.0,-291.0
-24.0,-30.0,-288.0
-24.0,-30.0,-54.0
-24.0,-30.0,-51.0
-24.0,-24.0,-291.0
-24.0,-24.0,-288.0
-24.0,-24.0,-54.0
-24.0,-24.0,-51.0
-24.0,-18.0,-291.0
-24.0,-18.0,-288.0
-24.0,-18.0,-57.0
-24.0,-18.0,-54.0
-24.0,-12.0,-294.0
-24.0,-12.0,-291.0
-24.0,-12.0,-57.0
-24.0,-12.0,-54.0
-24.0,-6.0,-294.0
-24.0,-6.0,-291.0
-24.0,-6.0,-57.0
-24.0,-6.0,-54.0
-24.0,0.0,-294.0
-24.0,0.0,-291.0
-24.0,0.0,-57.0
-24.0,0.0,-54.0
-24.0,6.0,-294.0
-24.0,6.0,-291.0
-24.0,6.0,-57.0
-24.0,6.0,-54.0
-24.0,12.0,-294.0
-24.0,12.0,-291.0
-24.0,12.0,-54.0
-24.0,12.0,-51.0
-24.0,18.0,-291.0
-24.0,18.0,-288.0
-24.0,18.0,-54.0
-24.0,18.0,-51.0
-24.0,24.0,-291.0
-24.0,24.0,-288.0
-24.0,24.0,-54.0
-24.0,24.0,-51.0
-24.0,30.0,-291.0
-24.0,30.0,-288.0
-24.0,30.0,-54.0
-24.0,30.0,-51.0
-24.0,36.0,-291.0
-24.0,36.0,-288.0
-24.0,36.0,-51.0
-24.0,36.0,-48.0
-24.0,42.0,-288.0
-24.0,42.0,-285.0
-24.0,42.0,-51.0
-24.0,42.0,-48.0
-24.0,48.0,-288.0
-24.0,48.0,-285.0
-24.0,48.0,-45.0
-24.0,48.0,-42.0
-24.0,54.0,-285.0
-24.0,54.0,-282.0
-24.0,54.0,-42.0
-24.0,54.0,-39.0
-24.0,60.0,-282.0
-24.0,60.0,-279.0
-24.0,60.0,-36.0
-24.0,60.0,-33.0
-24.0,66.0,-279.0
-24.0,66.0,-276.0
-24.0,66.0,-30.0
-24.0,66.0,-27.0
-24.0,66.0,-24.0
-24.0,66.0,-21.0
-24.0,72.0,-279.0
-24.0,72.0,-276.0
-24.0,72.0,-18.0
-24.0,72.0,-15.0
-24.0,72.0,-12.0
-24.0,72.0,-9.0
-24.0,72.0,-6.0
-24.0,72.0,-3.0
-24.0,72.0,0.0
-24.0,78.0,-276.0
-24.0,78.0,-273.0
-24.0,84.0,-270.0
-24.0,84.0,-267.0
-24.0,90.0,-267.0
-24.0,90.0,-264.0
-24.0,96.0,-264.0
-24.0,96.0,-261.0
-24.0,102.0,-261.0
-24.0,102.0,-258.0
-24.0,108.0,-255.0
-24.0,108.0,-252.0
-24.0,114.0,-252.0
-24.0,114.0,-249.0
-24.0,120.0,-246.0
-24.0,120.0,-243.0
-24.0,126.0,-240.0
-24.0,126.0,-237.0
-24.0,132.0,-234.0
-24.0,132.0,-231.0
-24.0,138.0,-228.0
-24.0,138.0,-225.0
-24.0,138.0,-222.0
-24.0,144.0,-219.0
-24.0,144.0,-216.0
-24.0,144.0,-213.0
-24.0,150.0,-210.0
-24.0,150.0,-207.0
-24.0,150.0,-204.0
-24.0,156.0,-201.0
-24.0,156.0,-198.0
-24.0,156.0,-195.0
-24.0,162.0,-192.0
-24.0,162.0,-189.0
-24.0,162.0,-186.0
-24.0,162.0,-183.0
-24.0,168.0,-180.0
-24.0,168.0,-177.0
-24.0,168.0,-174.0
-24.0,168.0,-171.0
-24.0,168.0,-168.0
-24.0,174.0,-165.0
-24.0,174.0,-162.0
-24.0,174.0,-159.0
-24.0,174.0,-156.0
-24.0,174.0,-153.0
-24.0,174.0,-150.0
-24.0,180.0,-147.0
-24.0,180.0,-144.0
-24.0,180.0,-141.0
-24.0,180.0,-138.0
-24.0,180.0,-135.0
-24.0,180.0,-132.0
-24.0,180.0,-129.0
-24.0,180.0,-126.0
-24.0,180.0,-123.0
-24.0,180.0,-120.0
-24.0,180.0,-117.0
-24.0,180.0,-27.0
-24.0,180.0,-24.0
-24.0,180.0,-21.0
-24.0,180.0,-18.0
-24.0,180.0,-15.0
-24.0,180.0,-12.0
-24.0,180.0,-9.0
-24.0,180.0,-6.0
-24.0,180.0,-3.0
-24.0,180.0,0.0
-24.0,186.0,-114.0
-24.0,186.0,-111.0
-24.0,186.0,-108.0
-24.0,186.0,-105.0
-24.0,186.0,-102.0
-24.0,186.0,-99.0
-24.0,186.0,-96.0
-24.0,186.0,-93.0
-24.0,186.0,-90.0
-24.0,186.0,-87.0
-24.0,186.0,-84.0
-24.0,186.0,-81.0
-24.0,186.0,-78.0
-24.0,186.0,-75.0
-24.0,186.0,-72.0
-24.0,186.0,-69.0
-24.0,186.0,-66.0
-24.0,186.0,-63.0
-24.0,186.0,-60.0
-24.0,186.0,-57.0
-24.0,186.0,-54.0
-24.0,186.0,-51.0
-24.0,186.0,-48.0
-24.0,186.0,-45.0
-24.0,186.0,-42.0
-24.0,186.0,-39.0
-24.0,186.0,-36.0
-24.0,186.0,-33.0
-24.0,186.0,-30.0
-18.0,-186.0,-153.0
-18.0,-186.0,-150.0
-18.0,-186.0,-147.0
-18.0,-186.0,-144.0
-18.0,-186.0,-141.0
-18.0,-186.0,-138.0
-18.0,-186.0,-135.0
-18.0,-186.0,-132.0
-18.0,-186.0,-129.0
-18.0,-186.0,-126.0
-18.0,-186.0,-123.0
-18.0,-186.0,-120.0
-18.0,-186.0,-117.0
-18.0,-186.0,-114.0
-18.0,-186.0,-111.0
-18.0,-186.0,-108.0
-18.0,-186.0,-105.0
-18.0,-186.0,-102.0
-18.0,-186.0,-99.0
-18.0,-186.0,-96.0
-18.0,-186.0,-93.0
-18.0,-186.0,-90.0
-18.0,-186.0,-87.0
-18.0,-186.0,-84.0
-18.0,-186.0,-81.0
-18.0,-186.0,-78.0
-18.0,-186.0,-75.0
-18.0,-186.0,-72.0
-18.0,-186.0,-69.0
-18.0,-186.0,-66.0
-18.0,-186.0,-63.0
-18.0,-186.0,-60.0
-18.0,-180.0,-171.0
-18.0,-180.0,-168.0
-18.0,-180.0,-165.0
-18.0,-180.0,-162.0
-18.0,-180.0,-159.0
-18.0,-180.0,-156.0
-18.0,-180.0,-57.0
-18.0,-180.0,-54.0
-18.0,-180.0,-51.0
-18.0,-180.0,-48.0
-18.0,-180.0,-45.0
-18.0,-180.0,-42.0
-18.0,-180.0,-39.0
-18.0,-180.0,-36.0
-18.0,-174.0,-186.0
-18.0,-174.0,-183.0
-18.0,-174.0,-180.0
-18.0,-174.0,-177.0
-18.0,-174.0,-174.0
-18.0,-174.0,-36.0
-18.0,-174.0,-33.0
-18.0,-174.0,-30.0
-18.0,-174.0,-27.0
-18.0,-174.0,-24.0
-18.0,-174.0,-21.0
-18.0,-174.0,-18.0
-18.0,-174.0,-15.0
-18.0,-174.0,-12.0
-18.0,-174.0,-9.0
-18.0,-174.0,-6.0
-18.0,-168.0,-198.0
-18.0,-168.0,-195.0
-18.0,-168.0,-192.0
-18.0,-168.0,-189.0
-18.0,-168.0,-18.0
-18.0,-168.0,-15.0
-18.0,-168.0,-12.0
-18.0,-168.0,-9.0
-18.0,-168.0,-6.0
-18.0,-168.0,-3.0
-18.0,-168.0,0.0
-18.0,-162.0,-207.0
-18.0,-162.0,-204.0
-18.0,-162.0,-201.0
-18.0,-156.0,-216.0
-18.0,-156.0,-213.0
-18.0,-156.0,-210.0
-18.0,-150.0,-225.0
-18.0,-150.0,-222.0
-18.0,-150.0,-219.0
-18.0,-144.0,-231.0
-18.0,-144.0,-228.0
-18.0,-138.0,-237.0
-18.0,-138.0,-234.0
-18.0,-132.0,-243.0
-18.0,-132.0,-240.0
-18.0,-126.0,-249.0
-18.0,-126.0,-246.0
-18.0,-120.0,-255.0
-18.0,-120.0,-252.0
-18.0,-114.0,-258.0
-18.0,-114.0,-255.0
-18.0,-114.0,-3.0
-18.0,-114.0,0.0
-18.0,-108.0,-264.0
-18.0,-108.0,-261.0
-18.0,-108.0,-15.0
-18.0,-108.0,-12.0
-18.0,-108.0,-9.0
-18.0,-108.0,-6.0
-18.0,-102.0,-267.0
-18.0,-102.0,-264.0
-18.0,-102.0,-21.0
-18.0,-102.0,-18.0
-18.0,-96.0,-270.0
-18.0,-96.0,-267.0
-18.0,-96.0,-27.0
-18.0,-96.0,-24.0
-18.0,-90.0,-273.0
-18.0,-90.0,-270.0
-18.0,-90.0,-33.0
-18.0,-90.0,-30.0
-18.0,-84.0,-276.0
-18.0,-84.0,-273.0
-18.0,-84.0,-36.0
-18.0,-84.0,-33.0
-18.0,-78.0,-279.0
-18.0,-78.0,-276.0
-18.0,-78.0,-39.0
-18.0,-78.0,-36.0
-18.0,-72.0,-282.0
-18.0,-72.0,-279.0
-18.0,-72.0,-42.0
-18.0,-72.0,-39.0
-18.0,-66.0,-282.0
-18.0,-66.0,-279.0
-18.0,-66.0,-42.0
-18.0,-66.0,-39.0
-18.0,-60.0,-285.0
-18.0,-60.0,-282.0
-18.0,-60.0,-45.0
-18.0,-60.0,-42.0
-18.0,-54.0,-285.0
-18.0,-54.0,-282.0
-18.0,-54.0,-48.0
-18.0,-54.0,-45.0
-18.0,-48.0,-288.0
-18.0,-48.0,-285.0
-18.0,-48.0,-48.0
-18.0,-48.0,-45.0
-18.0,-42.0,-288.0
-18.0,-42.0,-285.0
-18.0,-42.0,-51.0
-18.0,-42.0,-48.0
-18.0,-36.0,-291.0
-18.0,-36.0,-288.0
-18.0,-36.0,-54.0
-18.0,-36.0,-51.0
-18.0,-30.0,-291.0
-18.0,-30.0,-288.0
-18.0,-30.0,-54.0
-18.0,-30.0,-51.0
-18.0,-24.0,-291.0
-18.0,-24.0,-288.0
-18.0,-24.0,-57.0
-18.0,-24.0,-54.0
-18.0,-18.0,-294.0
-18.0,-18.0,-291.0
-18.0,-18.0,-57.0
-18.0,-18.0,-54.0
-18.0,-12.0,-294.0
-18.0,-12.0,-291.0
-18.0,-12.0,-57.0
-18.0,-12.0,-54.0
-18.0,-6.0,-294.0
-18.0,-6.0,-291.0
-18.0,-6.0,-57.0
-18.0,-6.0,-54.0
-18.0,0.0,-294.0
-18.0,0.0,-291.0
-18.0,0.0,-57.0
-18.0,0.0,-54.0
-18.0,6.0,-294.0
-18.0,6.0,-291.0
-18.0,6.0,-54.0
-18.0,6.0,-51.0
-18.0,12.0,-294.0
-18.0,12.0,-291.0
-18.0,12.0,-54.0
-18.0,12.0,-51.0
-18.0,18.0,-294.0
-18.0,18.0,-291.0
-18.0,18.0,-57.0
-18.0,18.0,-54.0
-18.0,24.0,-291.0
-18.0,24.0,-288.0
-18.0,24.0,-54.0
-18.0,24.0,-51.0
-18.0,30.0,-291.0
-18.0,30.0,-288.0
-18.0,30.0,-54.0
-18.0,30.0,-51.0
-18.0,36.0,-291.0
-18.0,36.0,-288.0
-18.0,36.0,-54.0
-18.0,36.0,-51.0
-18.0,42.0,-288.0
-18.0,42.0,-285.0
-18.0,42.0,-51.0
-18.0,42.0,-48.0
-18.0,48.0,-288.0
-18.0,48.0,-285.0
-18.0,48.0,-48.0
-18.0,48.0,-45.0
-18.0,54.0,-285.0
-18.0,54.0,-282.0
-18.0,54.0,-42.0
-18.0,54.0,-39.0
-18.0,60.0,-282.0
-18.0,60.0,-279.0
-18.0,60.0,-36.0
-18.0,60.0,-33.0
-18.0,66.0,-282.0
-18.0,66.0,-279.0
-18.0,66.0,-30.0
-18.0,66.0,-27.0
-18.0,66.0,-24.0
-18.0,72.0,-279.0
-18.0,72.0,-276.0
-18.0,72.0,-21.0
-18.0,72.0,-18.0
-18.0,72.0,-15.0
-18.0,72.0,-12.0
-18.0,72.0,-9.0
-18.0,72.0,-6.0
-18.0,72.0,-3.0
-18.0,72.0,0.0
-18.0,78.0,-276.0
-18.0,78.0,-273.0
-18.0,84.0,-273.0
-18.0,84.0,-270.0
-18.0,90.0,-270.0
-18.0,90.0,-267.0
-18.0,96.0,-264.0
-18.0,96.0,-261.0
-18.0,102.0,-261.0
-18.0,102.0,-258.0
-18.0,108.0,-258.0
-18.0,108.0,-255.0
-18.0,114.0,-252.0
-18.0,114.0,-249.0
-18.0,120.0,-246.0
-18.0,120.0,-243.0
-18.0,126.0,-240.0
-18.0,126.0,-237.0
-18.0,132.0,-234.0
-18.0,132.0,-231.0
-18.0,138.0,-228.0
-18.0,138.0,-225.0
-18.0,144.0,-222.0
-18.0,144.0,-219.0
-18.0,144.0,-216.0
-18.0,150.0,-213.0
-18.0,150.0,-210.0
-18.0,150.0,-207.0
-18.0,156.0,-204.0
-18.0,156.0,-201.0
-18.0,156.0,-198.0
-18.0,162.0,-195.0
-18.0,162.0,-192.0
-18.0,162.0,-189.0
-18.0,162.0,-186.0
-18.0,168.0,-183.0
-18.0,168.0,-180.0
-18.0,168.0,-177.0
-18.0,168.0,-174.0
-18.0,174.0,-171.0
-18.0,174.0,-168.0
-18.0,174.0,-165.0
-18.0,174.0,-162.0
-18.0,174.0,-159.0
-18.0,174.0,-156.0
-18.0,180.0,-153.0
-18.0,180.0,-150.0
-18.0,180.0,-147.0
-18.0,180.0,-144.0
-18.0,180.0,-141.0
-18.0,180.0,-138.0
-18.0,180.0,-135.0
-18.0,186.0,-132.0
-18.0,186.0,-129.0
-18.0,186.0,-126.0
-18.0,186.0,-123.0
-18.0,186.0,-120.0
-18.0,186.0,-117.0
-18.0,186.0,-114.0
-18.0,186.0,-111.0
-18.0,186.0,-108.0
-18.0,186.0,-105.0
-18.0,186.0,-102.0
-18.0,186.0,-99.0
-18.0,186.0,-96.0
-18.0,186.0,-93.0
-18.0,186.0,-90.0
-18.0,186.0,-87.0
-18.0,186.0,-84.0
-18.0,186.0,-81.0
-18.0,186.0,-78.0
-18.0,186.0,-75.0
-18.0,186.0,-72.0
-18.0,186.0,-69.0
-18.0,186.0,-66.0
-18.0,186.0,-63.0
-18.0,186.0,-60.0
-18.0,186.0,-57.0
-18.0,186.0,-54.0
-18.0,186.0,-51.0
-18.0,186.0,-48.0
-18.0,186.0,-45.0
-18.0,186.0,-42.0
-18.0,186.0,-39.0
-18.0,186.0,-36.0
-18.0,186.0,-33.0
-18.0,186.0,-30.0
-18.0,186.0,-27.0
-18.0,186.0,-24.0
-18.0,186.0,-21.0
-18.0,186.0,-18.0
-18.0,186.0,-15.0
-18.0,186.0,-12.0
-18.0,186.0,-9.0
-18.0,186.0,-6.0
-18.0,186.0,-3.0
-18.0,186.0,0.0
-12.0,-192.0,-138.0
-12.0,-192.0,-135.0
-12.0,-192.0,-132.0
-12.0,-192.0,-129.0
-12.0,-192.0,-126.0
-12.0,-192.0,-123.0
-12.0,-192.0,-120.0
-12.0,-192.0,-117.0
-12.0,-192.0,-114.0
-12.0,-192.0,-111.0
-12.0,-192.0,-108.0
-12.0,-192.0,-105.0
-12.0,-192.0,-102.0
-12.0,-192.0,-99.0
-12.0,-192.0,-96.0
-12.0,-192.0,-93.0
-12.0,-192.0,-90.0
-12.0,-192.0,-87.0
-12.0,-192.0,-84.0
-12.0,-192.0,-81.0
-12.0,-192.0,-78.0
-12.0,-192.0,-75.0
-12.0,-192.0,-72.0
-12.0,-192.0,-69.0
-12.0,-192.0,-66.0
-12.0,-186.0,-162.0
-12.0,-186.0,-159.0
-12.0,-186.0,-156.0
-12.0,-186.0,-153.0
-12.0,-186.0,-150.0
-12.0,-186.0,-147.0
-12.0,-186.0,-144.0
-12.0,-186.0,-141.0
-12.0,-186.0,-63.0
-12.0,-186.0,-60.0
-12.0,-186.0,-57.0
-12.0,-186.0,-54.0
-12.0,-186.0,-51.0
-12.0,-186.0,-48.0
-12.0,-186.0,-45.0
-12.0,-186.0,-42.0
-12.0,-186.0,-39.0
-12.0,-186.0,-36.0
-12.0,-180.0,-177.0
-12.0,-180.0,-174.0
-12.0,-180.0,-171.0
-12.0,-180.0,-168.0
-12.0,-180.0,-165.0
-12.0,-180.0,-33.0
-12.0,-180.0,-30.0
-12.0,-180.0,-27.0
-12.0,-180.0,-24.0
-12.0,-180.0,-21.0
-12.0,-180.0,-18.0
-12.0,-180.0,-15.0
-12.0,-180.0,-12.0
-12.0,-180.0,-9.0
-12.0,-180.0,-6.0
-12.0,-180.0,-3.0
-12.0,-180.0,0.0
-12.0,-174.0,-192.0
-12.0,-174.0,-189.0
-12.0,-174.0,-186.0
-12.0,-174.0,-183.0
-12.0,-174.0,-180.0
-12.0,-174.0,-3.0
-12.0,-174.0,0.0
-12.0,-168.0,-201.0
-12.0,-168.0,-198.0
-12.0,-168.0,-195.0
-12.0,-162.0,-213.0
-12.0,-162.0,-210.0
-12.0,-162.0,-207.0
-12.0,-162.0,-204.0
-12.0,-156.0,-219.0
-12.0,-156.0,-216.0
-12.0,-150.0,-228.0
-12.0,-150.0,-225.0
-12.0,-150.0,-222.0
-12.0,-144.0,-234.0
-12.0,-144.0,-231.0
-12.0,-138.0,-240.0
-12.0,-138.0,-237.0
-12.0,-132.0,-246.0
-12.0,-132.0,-243.0
-12.0,-126.0,-252.0
-12.0,-126.0,-249.0
-12.0,-120.0,-255.0
-12.0,-120.0,-252.0
-12.0,-114.0,-261.0
-12.0,-114.0,-258.0
-12.0,-108.0,-264.0
-12.0,-108.0,-261.0
-12.0,-108.0,-12.0
-12.0,-108.0,-9.0
-12.0,-108.0,-6.0
-12.0,-108.0,-3.0
-12.0,-108.0,0.0
-12.0,-102.0,-267.0
-12.0,-102.0,-264.0
-12.0,-102.0,-21.0
-12.0,-102.0,-18.0
-12.0,-102.0,-15.0
-12.0,-96.0,-273.0
-12.0,-96.0,-270.0
-12.0,-96.0,-27.0
-12.0,-96.0,-24.0
-12.0,-90.0,-276.0
-12.0,-90.0,-273.0
-12.0,-90.0,-30.0
-12.0,-90.0,-27.0
-12.0,-84.0,-276.0
-12.0,-84.0,-273.0
-12.0,-84.0,-36.0
-12.0,-84.0,-33.0
-12.0,-78.0,-279.0
-12.0,-78.0,-276.0
-12.0,-78.0,-39.0
-12.0,-78.0,-36.0
-12.0,-72.0,-282.0
-12.0,-72.0,-279.0
-12.0,-72.0,-42.0
-12.0,-72.0,-39.0
-12.0,-66.0,-282.0
-12.0,-66.0,-279.0
-12.0,-66.0,-45.0
-12.0,-66.0,-42.0
-12.0,-60.0,-285.0
-12.0,-60.0,-282.0
-12.0,-60.0,-48.0
-12.0,-60.0,-45.0
-12.0,-54.0,-288.0
-12.0,-54.0,-285.0
-12.0,-54.0,-48.0
-12.0,-54.0,-45.0
-12.0,-48.0,-288.0
-12.0,-48.0,-285.0
-12.0,-48.0,-51.0
-12.0,-48.0,-48.0
-12.0,-42.0,-291.0
-12.0,-42.0,-288.0
-12.0,-42.0,-54.0
-12.0,-42.0,-51.0
-12.0,-36.0,-291.0
-12.0,-36.0,-288.0
-12.0,-36.0,-54.0
-12.0,-36.0,-51.0
-12.0,-30.0,-291.0
-12.0,-30.0,-288.0
-12.0,-30.0,-54.0
-12.0,-30.0,-51.0
-12.0,-24.0,-294.0
-12.0,-24.0,-291.0
-12.0,-24.0,-57.0
-12.0,-24.0,-54.0
-12.0,-18.0,-294.0
-12.0,-18.0,-291.0
-12.0,-18.0,-57.0
-12.0,-18.0,-54.0
-12.0,-12.0,-294.0
-12.0,-12.0,-291.0
-12.0,-12.0,-57.0
-12.0,-12.0,-54.0
-12.0,-6.0,-294.0
-12.0,-6.0,-291.0
-12.0,-6.0,-57.0
-12.0,-6.0,-54.0
-12.0,0.0,-294.0
-12.0,0.0,-291.0
-12.0,0.0,-54.0
-12.0,0.0,-51.0
-12.0,6.0,-294.0
-12.0,6.0,-291.0
-12.0,6.0,-54.0
-12.0,6.0,-51.0
-12.0,12.0,-294.0
-12.0,12.0,-291.0
-12.0,12.0,-54.0
-12.0,12.0,-51.0
-12.0,18.0,-294.0
-12.0,18.0,-291.0
-12.0,18.0,-57.0
-12.0,18.0,-54.0
-12.0,24.0,-294.0
-12.0,24.0,-291.0
-12.0,24.0,-57.0
-12.0,24.0,-54.0
-12.0,30.0,-291.0
-12.0,30.0,-288.0
-12.0,30.0,-54.0
-12.0,30.0,-51.0
-12.0,36.0,-291.0
-12.0,36.0,-288.0
-12.0,36.0,-54.0
-12.0,36.0,-51.0
-12.0,42.0,-288.0
-12.0,42.0,-285.0
-12.0,42.0,-51.0
-12.0,42.0,-48.0
-12.0,48.0,-288.0
-12.0,48.0,-285.0
-12.0,48.0,-48.0
-12.0,48.0,-45.0
-12.0,54.0,-285.0
-12.0,54.0,-282.0
-12.0,54.0,-42.0
-12.0,54.0,-39.0
-12.0,60.0,-285.0
-12.0,60.0,-282.0
-12.0,60.0,-36.0
-12.0,60.0,-33.0
-12.0,66.0,-282.0
-12.0,66.0,-279.0
-12.0,66.0,-30.0
-12.0,66.0,-27.0
-12.0,66.0,-24.0
-12.0,72.0,-279.0
-12.0,72.0,-276.0
-12.0,72.0,-21.0
-12.0,72.0,-18.0
-12.0,72.0,-15.0
-12.0,72.0,-12.0
-12.0,72.0,-9.0
-12.0,72.0,-6.0
-12.0,72.0,-3.0
-12.0,72.0,0.0
-12.0,78.0,-276.0
-12.0,78.0,-273.0
-12.0,84.0,-273.0
-12.0,84.0,-270.0
-12.0,90.0,-270.0
-12.0,90.0,-267.0
-12.0,96.0,-267.0
-12.0,96.0,-264.0
-12.0,102.0,-261.0
-12.0,102.0,-258.0
-12.0,108.0,-258.0
-12.0,108.0,-255.0
-12.0,114.0,-252.0
-12.0,114.0,-249.0
-12.0,120.0,-249.0
-12.0,120.0,-246.0
-12.0,126.0,-243.0
-12.0,126.0,-240.0
-12.0,132.0,-237.0
-12.0,132.0,-234.0
-12.0,138.0,-231.0
-12.0,138.0,-228.0
-12.0,138.0,-225.0
-12.0,144.0,-222.0
-12.0,144.0,-219.0
-12.0,150.0,-216.0
-12.0,150.0,-213.0
-12.0,150.0,-210.0
-12.0,156.0,-207.0
-12.0,156.0,-204.0
-12.0,156.0,-201.0
-12.0,162.0,-198.0
-12.0,162.0,-195.0
-12.0,162.0,-192.0
-12.0,162.0,-189.0
-12.0,168.0,-186.0
-12.0,168.0,-183.0
-12.0,168.0,-180.0
-12.0,168.0,-177.0
-12.0,174.0,-174.0
-12.0,174.0,-171.0
-12.0,174.0,-168.0
-12.0,174.0,-165.0
-12.0,174.0,-162.0
-12.0,180.0,-159.0
-12.0,180.0,-156.0
-12.0,180.0,-153.0
-12.0,180.0,-150.0
-12.0,180.0,-147.0
-12.0,180.0,-144.0
-12.0,186.0,-141.0
-12.0,186.0,-138.0
-12.0,186.0,-135.0
-12.0,186.0,-132.0
-12.0,186.0,-129.0
-12.0,186.0,-126.0
-12.0,186.0,-123.0
-12.0,186.0,-120.0
-12.0,186.0,-117.0
-12.0,186.0,-114.0
-12.0,192.0,-111.0
-12.0,192.0,-108.0
-12.0,192.0,-105.0
-12.0,192.0,-102.0
-12.0,192.0,-99.0
-12.0,192.0,-96.0
-12.0,192.0,-93.0
-12.0,192.0,-90.0
-12.0,192.0,-87.0
-12.0,192.0,-84.0
-12.0,192.0,-81.0
-12.0,192.0,-78.0
-12.0,192.0,-75.0
-12.0,192.0,-72.0
-12.0,192.0,-69.0
-12.0,192.0,-66.0
-12.0,192.0,-63.0
-12.0,192.0,-60.0
-12.0,192.0,-57.0
-12.0,192.0,-54.0
-12.0,192.0,-51.0
-12.0,192.0,-48.0
-12.0,192.0,-45.0
-12.0,192.0,-42.0
-12.0,192.0,-39.0
-12.0,192.0,-36.0
-12.0,192.0,-33.0
-12.0,192.0,-30.0
-12.0,192.0,-27.0
-12.0,192.0,-24.0
-12.0,192.0,-21.0
-12.0,192.0,-18.0
-12.0,192.0,-15.0
-12.0,192.0,-12.0
-12.0,192.0,-9.0
-12.0,192.0,-6.0
-12.0,192.0,-3.0
-12.0,192.0,0.0
-6.0,-198.0,-114.0
-6.0,-198.0,-111.0
-6.0,-198.0,-108.0
-6.0,-198.0,-105.0
-6.0,-198.0,-102.0
-6.0,-198.0,-99.0
-6.0,-198.0,-96.0
-6.0,-198.0,-93.0
-6.0,-198.0,-90.0
-6.0,-198.0,-87.0
-6.0,-198.0,-84.0
-6.0,-198.0,-81.0
-6.0,-192.0,-150.0
-6.0,-192.0,-147.0
-6.0,-192.0,-144.0
-6.0,-192.0,-141.0
-6.0,-192.0,-138.0
-6.0,-192.0,-135.0
-6.0,-192.0,-132.0
-6.0,-192.0,-129.0
-6.0,-192.0,-126.0
-6.0,-192.0,-123.0
-6.0,-192.0,-120.0
-6.0,-192.0,-117.0
-6.0,-192.0,-78.0
-6.0,-192.0,-75.0
-6.0,-192.0,-72.0
-6.0,-192.0,-69.0
-6.0,-192.0,-66.0
-6.0,-192.0,-63.0
-6.0,-192.0,-60.0
-6.0,-192.0,-57.0
-6.0,-192.0,-54.0
-6.0,-192.0,-51.0
-6.0,-192.0,-48.0
-6.0,-192.0,-45.0
-6.0,-192.0,-42.0
-6.0,-192.0,-39.0
-6.0,-192.0,-36.0
-6.0,-186.0,-168.0
-6.0,-186.0,-165.0
-6.0,-186.0,-162.0
-6.0,-186.0,-159.0
-6.0,-186.0,-156.0
-6.0,-186.0,-153.0
-6.0,-186.0,-33.0
-6.0,-186.0,-30.0
-6.0,-186.0,-27.0
-6.0,-186.0,-24.0
-6.0,-186.0,-21.0
-6.0,-186.0,-18.0
-6.0,-186.0,-15.0
